# .PCD v0.7 - Point Cloud Data file format
VERSION 0.7
FIELDS x y z
SIZE 4 4 4
TYPE F F F
COUNT 1 1 1
WIDTH 272
HEIGHT 1
VIEWPOINT 0 0 0 1 0 0 0
POINTS 272
DATA ascii
-0.14598781 0.6926105 0.16917232
-0.15832213 0.67836064 0.17233726
-0.17218506 0.66651058 0.16931033
-0.15386295 0.70171058 0.15790859
-0.17031965 0.69019437 0.1569134
-0.1814352 0.67416859 0.15788585
-0.17738897 0.69709003 0.14327508
-0.1596027 0.57488763 0.19954735
-0.1800971 0.56901073 0.19910553
-0.19595304 0.55292761 0.19837031
-0.097908199 0.68455517 0.16788214
-0.11286145 0.67086107 0.17875382
-0.13224784 0.65203798 0.18350658
-0.15107772 0.63221788 0.17847073
-0.16441423 0.61823082 0.16815704
-0.19484091 0.57455391 0.18661791
-0.20000118 0.56564671 0.18646941
-0.10783303 0.70058119 0.15940735
-0.12797904 0.6911031 0.17113534
-0.14840269 0.66839194 0.17931187
-0.17125893 0.64760923 0.17091146
-0.18064952 0.62738276 0.15895015
-0.12178338 0.71619946 0.14226338
-0.14324504 0.71030086 0.15065426
-0.17459303 0.69754481 0.14397728
-0.19038337 0.66300404 0.1503782
-0.19631505 0.6408335 0.14117935
-0.13300347 0.72348011 0.12261754
-0.15674323 0.71679401 0.12598208
-0.1805954 0.70035446 0.12823349
-0.19724429 0.675722 0.12464589
-0.20337453 0.65297484 0.12159336
-0.16469079 0.71568519 0.10260409
-0.18260968 0.70190215 0.10314667
-0.19561148 0.68437415 0.10226676
0.058476269 0.74957955 0.19028994
0.043187797 0.73095369 0.19238868
0.033118606 0.72021866 0.19037753
-0.10947257 0.57283187 0.19820201
-0.12826043 0.56329668 0.19968948
-0.14964551 0.54289472 0.20000127
-0.17085606 0.52166587 0.2000016
-0.19125575 0.49989423 0.19910079
-0.19874957 0.48131603 0.19832125
0.07215184 0.78803885 0.17743188
0.051046908 0.76551563 0.17966023
0.036498368 0.74427295 0.17987335
-0.091198802 0.63871646 0.17259851
-0.10626265 0.62502545 0.17552006
-0.11865285 0.60988301 0.17177114
-0.14510995 0.57403064 0.18888682
-0.165052 0.56094325 0.19766226
-0.1913569 0.53707623 0.19470185
-0.19966796 0.51666641 0.18677649
0.042954087 0.77829963 0.16212252
0.034204543 0.75940263 0.16448495
-0.087528884 0.6783821 0.16399342
-0.094674647 0.65758306 0.1743066
-0.11554742 0.63513267 0.1811175
-0.13772842 0.61225879 0.17287722
-0.15649474 0.60023594 0.16079736
-0.18051001 0.57490599 0.16543683
-0.20000082 0.55206668 0.16548792
-0.20000061 0.52745414 0.16521329
-0.093073845 0.69731343 0.15355483
-0.17760348 0.6068517 0.14598966
-0.19485453 0.57455766 0.14413255
-0.20000109 0.56557083 0.14405477
-0.10637736 0.71673709 0.13271955
-0.19537371 0.61937535 0.12474433
-0.12818527 0.72436965 0.1120795
-0.14393041 0.72321522 0.10312796
-0.20269221 0.66394353 0.10106215
-0.20277494 0.64127362 0.10399875
-0.16050434 0.71602458 0.093946069
-0.1814954 0.69827735 0.087363899
-0.19656166 0.67349708 0.08838135
-0.20008975 0.65310574 0.084803522
0.013273776 0.5823971 0.23478919
0.0014061332 0.56274277 0.23910207
0.038087189 0.64274603 0.21485502
0.021992385 0.62254834 0.2200287
0.0048398376 0.59979296 0.22216225
-0.0069710612 0.5797565 0.22257388
0.083484292 0.71874243 0.19044718
0.064642966 0.70531756 0.19947407
0.044289529 0.68530953 0.20604947
0.0273785 0.66220468 0.20767856
0.008852303 0.63847327 0.20468375
-0.0030842423 0.6144411 0.20383304
-0.01021868 0.59328115 0.20755672
-0.10627529 0.53335738 0.19999957
-0.11988696 0.51312947 0.20000023
-0.14107275 0.49191698 0.20000035
-0.16228706 0.47070387 0.20000118
-0.18351811 0.44948056 0.19997829
-0.19697672 0.43321523 0.1975728
0.11160284 0.78889334 0.18312564
0.095428407 0.76450431 0.18173015
0.075175583 0.74292374 0.18962255
0.053340852 0.72037935 0.19823894
0.029154241 0.70289719 0.19343433
0.013975203 0.67654049 0.18627545
0.0039748549 0.65111852 0.18492496
-0.10460445 0.57110268 0.19164863
-0.11350149 0.54889226 0.20000073
-0.13450837 0.52772641 0.20000097
-0.15571445 0.5065406 0.2000013
-0.17782038 0.48543018 0.19947985
-0.19841784 0.46519059 0.18894705
-0.19999892 0.44063318 0.18619809
0.098263919 0.79104912 0.1837469
0.085359275 0.77868527 0.18242076
0.072057664 0.76502335 0.18559331
0.027643204 0.73712522 0.16888216
0.020222485 0.71385181 0.16728708
0.012635887 0.68815625 0.16576362
-0.081398547 0.6343652 0.16433752
-0.097778171 0.61316669 0.16592732
-0.11098129 0.58111495 0.16471201
-0.12799799 0.57499963 0.16541174
-0.20000014 0.49961674 0.16546062
-0.19999963 0.47905868 0.16534132
0.049625814 0.79814565 0.14414641
0.038722634 0.77425373 0.14379543
0.029504597 0.74830717 0.14760149
0.022749007 0.72459543 0.14588478
-0.077569276 0.64462095 0.16316685
-0.12629664 0.59212792 0.156726
-0.14458662 0.57884932 0.14463216
-0.16634285 0.57499969 0.14416274
-0.20000097 0.53739393 0.14411575
-0.20000058 0.51669562 0.14427692
0.045550048 0.78188884 0.12810564
-0.16647983 0.58686006 0.12647495
-0.18034151 0.57491034 0.12299046
-0.20000079 0.55209398 0.12303722
-0.20000067 0.52731854 0.12252107
-0.18690261 0.60279548 0.10648116
-0.19387817 0.57661128 0.10256338
-0.20000085 0.56559992 0.10164201
-0.19552526 0.62280726 0.088913202
-0.19312429 0.65742421 0.070942879
-0.19534948 0.64578217 0.074370086
-0.00060272217 0.45194995 0.27184975
0.04556638 0.53942645 0.26077181
0.041768372 0.52061146 0.2654691
0.0033336282 0.50020158 0.26221165
-0.0062510371 0.47835475 0.26555806
-0.0070345402 0.4585456 0.26709473
0.032938063 0.55553925 0.25161394
0.020864785 0.54288393 0.2556451
-0.0033662915 0.52139539 0.2541005
-0.015545547 0.49530506 0.24853694
-0.017953902 0.47321922 0.24487546
0.023166001 0.57531685 0.23862135
0.0018206239 0.55467981 0.24170721
-0.015311986 0.53550839 0.23416379
-0.025313735 0.50989455 0.22583425
0.042418003 0.63364506 0.21494859
0.032681525 0.61065304 0.22264421
0.025940597 0.59938115 0.22775757
-0.014968097 0.56970024 0.21112409
-0.020732552 0.54524273 0.2085886
-0.026728094 0.52153647 0.20782208
-0.10339814 0.48229629 0.20000061
-0.11279202 0.46177477 0.20000064
-0.13219732 0.44113961 0.20000014
-0.15270823 0.43000156 0.20000044
0.091151297 0.71818542 0.18635166
0.079115391 0.6989001 0.19322351
-0.0080041289 0.60771334 0.18826452
-0.013326943 0.58324492 0.19281068
-0.1080811 0.49631289 0.20000052
-0.12618929 0.47700316 0.19999963
-0.14737332 0.4557716 0.20000148
-0.16811642 0.43573138 0.20000115
-0.19447395 0.42712447 0.19120741
0.11908811 0.76475674 0.17379662
0.10924065 0.74784124 0.17747539
0.098732889 0.73112696 0.18208995
0.0075808764 0.66482234 0.16401049
0.0028610229 0.64371419 0.17000318
-0.0026771426 0.62167257 0.17590809
-0.19999924 0.45073354 0.16529536
-0.19999903 0.43440726 0.1655353
0.020089924 0.70126009 0.14326188
0.013444901 0.67824596 0.15306818
-0.10589001 0.57500017 0.14402783
-0.20000005 0.4893778 0.14369825
-0.1999996 0.46439379 0.14423206
-0.19999924 0.44075376 0.14400339
0.041313589 0.75863039 0.12064818
0.033617377 0.73950744 0.12644193
0.025497377 0.71664989 0.13539103
-0.11013174 0.57500017 0.13080409
-0.12959132 0.57499975 0.12853825
-0.20000032 0.49959046 0.12300688
-0.19999999 0.47899348 0.12294877
0.058150411 0.78959572 0.11399156
0.047350585 0.76940852 0.11739674
-0.1518999 0.57499945 0.10385975
-0.16615406 0.57499951 0.10159212
-0.20000058 0.53727531 0.10162315
-0.20000038 0.51663727 0.10179132
-0.15609446 0.57499969 0.080584884
-0.18036899 0.57491112 0.080627203
-0.20000049 0.55209428 0.080547333
-0.20000046 0.52751088 0.080583632
-0.19488087 0.57456088 0.059395552
-0.20000076 0.56562519 0.059111238
0.054885745 0.49615914 0.27001491
0.0047239661 0.45424324 0.27066153
0.002707541 0.43462738 0.26890844
0.046257079 0.50157946 0.26329976
-0.0080345273 0.46865335 0.24901006
-0.011185706 0.44445366 0.25041461
-0.01057291 0.42359746 0.24591857
-0.016654879 0.47884154 0.23128477
-0.020571142 0.45943817 0.22907561
-0.028546512 0.49375176 0.20975414
-0.026823133 0.47555506 0.20514119
-0.10008061 0.43020797 0.20000124
-0.10207206 0.42705777 0.20000124
-0.012673855 0.55539787 0.18368727
-0.019844502 0.53596663 0.19004658
-0.027243257 0.51146096 0.19654611
-0.10385448 0.44109204 0.20000085
-0.11283156 0.43084109 0.20000061
-0.011326522 0.5608204 0.18256614
-0.19999892 0.42776343 0.14392239
-0.19999936 0.4507845 0.12282962
-0.19999915 0.43448329 0.12299761
-0.20000023 0.48893243 0.10150862
-0.1999996 0.46437907 0.10178691
-0.19999936 0.44085202 0.10152057
-0.20000029 0.4996154 0.080619931
-0.20000008 0.4790917 0.080430448
-0.15144783 0.57499993 0.057928264
-0.16627166 0.57499951 0.059219003
-0.20000046 0.53725195 0.059288442
-0.20000038 0.51666617 0.059401512
-0.15611959 0.57500005 0.037767053
-0.18035176 0.57490796 0.038184106
-0.20000052 0.55205303 0.038192332
-0.20000032 0.52735746 0.038009167
0.0024518371 0.41662589 0.2502948
9.5546246e-05 0.40962064 0.24677345
-0.0099595189 0.43044415 0.22835258
-0.0099586248 0.41901284 0.22969657
-0.017825842 0.44147357 0.20557353
-0.017903864 0.43004116 0.21528983
-0.026033819 0.45909226 0.19944796
-0.19999906 0.42733121 0.10167933
-0.19999954 0.45076323 0.080355465
-0.19999939 0.43455333 0.080631435
-0.20000011 0.48906958 0.058855951
-0.19999975 0.46437636 0.059354782
-0.19999945 0.44079307 0.059150398
-0.14124024 0.57500041 0.037228823
-0.20000002 0.49955723 0.038172543
-0.20000005 0.47899574 0.037945986
-0.14507636 0.57686102 0.011829376
-0.16625199 0.57500005 0.016461372
-0.20000032 0.53735155 0.016797245
-0.20235017 0.51572496 0.012529373
-0.01231119 0.4247449 0.19651949
-0.19999921 0.42748329 0.058991551
-0.1999996 0.45076036 0.037973464
-0.19999939 0.43429619 0.038183272
-0.1999999 0.48901495 0.016884923
-0.20060727 0.46359044 0.014787436
