# .PCD v0.7 - Point Cloud Data file format
VERSION 0.7
FIELDS x y z
SIZE 4 4 4
TYPE F F F
COUNT 1 1 1
WIDTH 279
HEIGHT 1
VIEWPOINT 0 0 0 1 0 0 0
POINTS 279
DATA ascii
-0.1596027 0.57488763 0.19954735
-0.18009666 0.56901038 0.19910502
-0.19595313 0.55292773 0.19837046
-0.054873616 0.727292 0.16969848
-0.069205731 0.71278596 0.17938283
-0.088553071 0.69349194 0.18299407
-0.10714152 0.67455649 0.176999
-0.1204924 0.66149402 0.16606176
-0.19484082 0.57455379 0.18661779
-0.20000124 0.56564677 0.1864695
-0.064584285 0.74284792 0.15960062
-0.086352706 0.7326259 0.16974205
-0.10953826 0.71418953 0.17302603
-0.12631941 0.68882996 0.16705427
-0.13494104 0.67047656 0.15590477
-0.078259081 0.75713611 0.14143875
-0.10196239 0.74799633 0.14992413
-0.12508693 0.72968721 0.15279564
-0.14191949 0.70447606 0.14693767
-0.1480228 0.68284738 0.13855582
-0.088975638 0.7631911 0.12220699
-0.11165226 0.75539911 0.12292886
-0.13388032 0.73818696 0.12364498
-0.14857772 0.71438539 0.12185431
-0.15363246 0.69313931 0.12221608
-0.1221745 0.75128698 0.10133931
-0.13300869 0.74176264 0.10186827
0.058476329 0.74957937 0.19028983
0.043187797 0.73095357 0.19238868
0.033118665 0.72021866 0.19037747
-0.10947254 0.57283175 0.19820192
-0.12826023 0.56329638 0.19968915
-0.14964595 0.54289508 0.20000184
-0.17085609 0.52166581 0.20000154
-0.19125584 0.49989432 0.19910094
-0.19874969 0.48131615 0.19832143
0.07215184 0.78803897 0.17743203
0.051047027 0.76551557 0.17966011
0.036498427 0.74427247 0.17987296
-0.046954364 0.68397909 0.17622566
-0.063658118 0.66794497 0.17860889
-0.077201903 0.65119213 0.17343044
-0.14511022 0.57403111 0.18888736
-0.16505212 0.56094337 0.19766244
-0.19135752 0.53707677 0.19470268
-0.19966817 0.51666659 0.1867767
0.042954147 0.77829957 0.16212246
0.034204602 0.75940269 0.16448495
-0.042651474 0.72035205 0.16630477
-0.05124113 0.70083177 0.17724988
-0.074353397 0.67724031 0.18282729
-0.096764803 0.65479469 0.17250863
-0.11255786 0.64512074 0.15909541
-0.15637898 0.57499969 0.16535738
-0.18050984 0.57490587 0.16543657
-0.20000082 0.55206668 0.16548792
-0.20000061 0.52745414 0.16521329
-0.048564076 0.74057043 0.15433922
-0.13210601 0.65222466 0.14569575
-0.19485438 0.57455754 0.14413232
-0.20000106 0.56557089 0.14405477
-0.062747061 0.75864625 0.13260844
-0.14821237 0.66635358 0.12433463
-0.086084515 0.76428825 0.11358115
-0.10492793 0.75989854 0.1026327
-0.1436691 0.72813636 0.10179925
-0.15160125 0.70583463 0.10089791
-0.15337765 0.68403244 0.10494605
-0.1166932 0.75306368 0.094548911
-0.13430321 0.73638523 0.090745419
-0.14571103 0.71518022 0.087055743
0.013273776 0.58239698 0.23478907
0.0014062524 0.56274253 0.23910198
0.03808707 0.64274609 0.21485513
0.021992445 0.62254828 0.22002861
0.0048397779 0.59979284 0.22216216
-0.0069710612 0.57975644 0.22257385
0.083484292 0.71874243 0.19044718
0.064642787 0.70531744 0.1994741
0.044289529 0.68530977 0.20604971
0.027378082 0.6622045 0.20767877
0.0088524818 0.63847303 0.20468348
-0.0030844808 0.61444116 0.20383322
-0.01021871 0.59328109 0.20755672
-0.10627502 0.53335714 0.19999921
-0.11988738 0.51312995 0.20000067
-0.14107341 0.49191749 0.20000124
-0.16228706 0.4707039 0.20000139
-0.18351704 0.44947946 0.19997671
-0.1969769 0.43321544 0.19757295
0.1116032 0.78889346 0.18312547
0.095428646 0.76450443 0.18173009
0.075175822 0.74292362 0.18962234
0.053340793 0.72037935 0.19823897
0.029153526 0.70289743 0.19343495
0.013975203 0.67654085 0.18627572
0.0039746165 0.65111876 0.18492529
-0.10460445 0.57110274 0.19164863
-0.11350113 0.5488919 0.20000023
-0.1345081 0.52772623 0.20000061
-0.15571421 0.50654024 0.20000085
-0.1778208 0.48543057 0.19948038
-0.19841713 0.4651899 0.18894601
-0.19999903 0.4406333 0.18619826
0.098264039 0.791049 0.18374676
0.085359156 0.77868509 0.18242073
0.072057664 0.76502335 0.18559331
0.027643383 0.73712528 0.16888213
0.020222962 0.71385157 0.16728657
0.012635827 0.68815631 0.16576368
-0.033559203 0.6785382 0.16660666
-0.05186224 0.65295994 0.16771594
-0.070358813 0.63749653 0.16150904
-0.11039394 0.57499981 0.16554123
-0.12799808 0.57499969 0.16541186
-0.20000014 0.49961677 0.16546062
-0.19999972 0.47905877 0.16534144
0.049625814 0.79814559 0.14414638
0.038722634 0.77425379 0.14379537
0.029504001 0.74830687 0.14760157
0.022748947 0.72459543 0.14588478
-0.027954429 0.69543815 0.16349995
-0.083882034 0.63146162 0.15573674
-0.10072106 0.62795883 0.14443949
-0.14421239 0.57499981 0.14423734
-0.16634282 0.57499969 0.14416271
-0.20000079 0.53739375 0.14411548
-0.20000032 0.51669532 0.14427656
0.045549929 0.7818889 0.12810582
-0.1232475 0.63213444 0.12545466
-0.15631774 0.57499957 0.12271875
-0.18034163 0.5749104 0.12299064
-0.20000079 0.55209398 0.12303731
-0.20000064 0.52731848 0.12252104
-0.13925874 0.64625543 0.10475045
-0.19492576 0.57455117 0.10175925
-0.20000088 0.56559992 0.10164201
-0.14696911 0.69019115 0.077150226
-0.14658487 0.66977286 0.085647821
-0.14369729 0.69903147 0.07283771
-0.00060278177 0.45195001 0.27184975
0.04556638 0.53942645 0.26077181
0.041768491 0.52061141 0.26546901
0.0033336282 0.50020158 0.26221168
-0.0062512159 0.47835487 0.26555839
-0.0070344806 0.45854557 0.26709476
0.032938063 0.55553919 0.25161391
0.020864546 0.54288399 0.2556451
-0.0033661723 0.52139521 0.25410017
-0.015545428 0.49530503 0.24853712
-0.017953992 0.47321928 0.24487555
0.02316612 0.57531679 0.23862118
0.0018209815 0.55467963 0.24170682
-0.015312016 0.53550828 0.23416364
-0.025313795 0.50989449 0.22583416
0.042418003 0.63364506 0.21494859
0.032681465 0.61065304 0.22264424
0.025940597 0.59938115 0.22775757
-0.014968246 0.5697 0.211124
-0.020732403 0.54524261 0.20858836
-0.026728094 0.52153647 0.20782208
-0.10339823 0.48229641 0.20000073
-0.1127924 0.46177515 0.20000124
-0.13219815 0.44114044 0.20000118
-0.15270886 0.43000218 0.20000124
0.091151297 0.71818542 0.18635166
0.07911545 0.6989001 0.19322351
-0.0080037713 0.60771304 0.18826407
-0.013326824 0.5832448 0.19281057
-0.10808104 0.4963128 0.20000044
-0.12619001 0.47700384 0.20000058
-0.14737272 0.45577097 0.2000007
-0.16811651 0.43573147 0.20000139
-0.19447398 0.4271245 0.19120744
0.11908811 0.76475674 0.17379662
0.10924071 0.74784136 0.17747542
0.098732889 0.7311269 0.18208995
0.0075808764 0.66482228 0.16401047
0.0028606057 0.64371437 0.17000353
-0.0026770234 0.62167251 0.175908
-0.1999993 0.4507336 0.16529542
-0.19999892 0.43440711 0.16553509
0.020090044 0.70126009 0.14326182
0.013444901 0.67824584 0.15306813
-0.066855699 0.62393892 0.14292613
-0.1058901 0.57500023 0.14402792
-0.20000002 0.48937777 0.14369819
-0.19999948 0.46439368 0.14423189
-0.19999927 0.44075379 0.14400342
0.041313469 0.75863039 0.12064821
0.033617198 0.73950744 0.12644216
0.025497198 0.71665001 0.13539124
-0.073136926 0.62145364 0.13913482
-0.093560427 0.61833018 0.12614134
-0.11043054 0.57500035 0.12299621
-0.12802321 0.57499981 0.12297308
-0.20000026 0.49959037 0.12300673
-0.20000005 0.47899351 0.12294888
0.058150411 0.78959572 0.11399153
0.047350585 0.76940858 0.11739674
-0.11227682 0.62307274 0.10923207
-0.1442197 0.57499987 0.10192415
-0.16615409 0.57499957 0.10159218
-0.2000007 0.53727537 0.10162336
-0.20000023 0.51663709 0.10179111
-0.12634021 0.63363945 0.093573987
-0.1560944 0.57499957 0.080584764
-0.18036908 0.57491112 0.080627382
-0.20000052 0.55209428 0.080547273
-0.20000055 0.527511 0.080583751
-0.13411948 0.65157646 0.075496435
-0.19488084 0.57456088 0.059395492
-0.20000064 0.56562507 0.059110999
0.054885805 0.49615908 0.27001482
0.0047239661 0.45424324 0.27066153
0.0027076006 0.43462729 0.26890838
0.046257079 0.50157952 0.2632997
-0.0080345273 0.46865329 0.24901
-0.011185616 0.44445366 0.25041449
-0.01057291 0.42359746 0.24591857
-0.016654849 0.47884148 0.23128468
-0.020570964 0.459438 0.22907531
-0.028546572 0.49375167 0.2097542
-0.026823103 0.47555503 0.20514116
-0.10008061 0.43020797 0.20000124
-0.10207206 0.42705777 0.20000124
-0.012673855 0.55539787 0.18368727
-0.019844472 0.53596652 0.19004646
-0.027243137 0.51146084 0.1965459
-0.1038546 0.44109219 0.20000106
-0.11283165 0.43084118 0.20000082
-0.011326492 0.5608204 0.18256614
-0.19999892 0.42776343 0.14392239
-0.19999939 0.45078453 0.12282962
-0.199999 0.43448314 0.1229974
-0.10581547 0.5750007 0.10153398
-0.20000017 0.48893237 0.10150856
-0.1999996 0.46437907 0.10178691
-0.19999936 0.44085202 0.10152057
-0.11048228 0.57500088 0.080492914
-0.12812963 0.57500029 0.080669403
-0.2000002 0.49961531 0.080619812
-0.20000011 0.4790917 0.080430508
-0.14425004 0.57500011 0.059332192
-0.16627163 0.57499951 0.059218943
-0.20000052 0.53725201 0.059288561
-0.20000023 0.51666605 0.059401333
-0.15611956 0.57500005 0.037767053
-0.18035173 0.57490796 0.038184106
-0.20000061 0.55205309 0.038192451
-0.20000032 0.52735746 0.038009226
0.0024517179 0.41662595 0.25029486
9.5546246e-05 0.40962061 0.24677342
-0.0099596083 0.43044424 0.2283527
-0.0099586248 0.4190129 0.2296966
-0.017825961 0.4414736 0.20557377
-0.017903864 0.43004116 0.21528977
-0.0260337 0.4590922 0.19944787
-0.19999909 0.42733124 0.10167935
-0.19999945 0.45076311 0.080355287
-0.1999993 0.43455324 0.080631375
-0.10588235 0.57500112 0.059151113
-0.20000008 0.48906958 0.058855891
-0.1999999 0.46437654 0.059354961
-0.19999945 0.44079307 0.059150398
-0.11040634 0.57500112 0.038166702
-0.12803191 0.5750007 0.038095891
-0.20000011 0.49955732 0.038172662
-0.19999993 0.47899562 0.037945747
-0.14290997 0.57717836 0.011846185
-0.16625202 0.57500005 0.016461372
-0.20000023 0.53735143 0.016797066
-0.20235023 0.51572502 0.012529731
-0.01231119 0.4247449 0.19651949
-0.19999921 0.42748329 0.058991551
-0.19999957 0.45076033 0.037973404
-0.19999951 0.43429628 0.038183391
-0.19999993 0.48901498 0.016884983
-0.200607 0.46359017 0.014787078
